-0.8130;1.6130;-0.4480;54;245;244;239;
-0.7920;1.5500;-0.4500;81;231;163;98;
-0.8020;1.5720;-0.3990;13;254;223;177;
-0.7980;1.5890;-0.4120;23;246;141;0;
-0.7770;1.5270;-0.4510;74;244;232;194;
-0.7950;1.5960;-0.4500;72;246;246;244;
-0.7500;1.5630;-0.3960;41;250;162;0;
-0.7530;1.5590;-0.3890;15;255;187;0;
-0.8320;1.6000;-0.4490;75;248;249;244;
-0.7780;1.5340;-0.4100;32;247;160;1;
-0.7380;1.5850;-0.4500;53;247;247;245;
-0.7320;1.5750;-0.4490;55;243;247;246;
-0.8040;1.5460;-0.4130;30;245;154;1;
-0.7310;1.6200;-0.4510;53;242;242;244;
-0.7490;1.5480;-0.4290;26;234;136;0;
-0.8120;1.5740;-0.4490;47;237;232;210;
-0.7970;1.5860;-0.4070;66;234;110;0;
-0.7600;1.5320;-0.4490;49;243;189;161;
-0.7770;1.5990;-0.4020;50;242;136;0;
-0.7940;1.5610;-0.3950;46;250;204;4;
-0.7440;1.5620;-0.3960;24;252;159;2;
-0.7530;1.5970;-0.4100;61;236;112;0;
-0.7800;1.5290;-0.4490;73;238;211;181;
-0.7990;1.5880;-0.4250;23;244;148;0;
-0.7910;1.5730;-0.4510;83;131;63;0;
-0.7980;1.5490;-0.3990;41;248;172;0;
-0.7910;1.6160;-0.4490;51;238;239;223;
-0.8260;1.5450;-0.4500;76;245;249;250;
-0.7780;1.5770;-0.3820;25;244;250;28;
-0.7920;1.5840;-0.3930;48;249;156;1;
-0.7560;1.5360;-0.4510;50;236;191;158;
-0.7700;1.6010;-0.4290;21;224;131;2;
-0.7580;1.5580;-0.3850;28;252;193;1;
-0.7800;1.5650;-0.3830;11;228;219;140;
-0.7530;1.5950;-0.4220;18;241;112;0;
-0.7460;1.5230;-0.4490;55;239;240;242;
-0.7770;1.5900;-0.3930;32;245;140;0;
-0.8100;1.5700;-0.4490;52;243;209;181;
-0.7460;1.5520;-0.4220;27;247;121;0;
-0.7420;1.6100;-0.4520;54;241;243;240;
-0.7590;1.5420;-0.4500;48;214;151;97;
-0.7490;1.5790;-0.3940;33;244;166;0;
-0.7470;1.5810;-0.3970;33;241;148;0;
-0.7840;1.5390;-0.4480;42;181;104;58;
-0.7450;1.6040;-0.4490;71;248;247;242;
-0.7420;1.5550;-0.4050;40;249;127;0;
-0.8060;1.5680;-0.4060;28;242;124;0;
-0.7300;1.5920;-0.4500;52;250;250;252;
-0.7620;1.5170;-0.4500;72;243;237;225;
-0.8040;1.5920;-0.4490;55;243;231;207;
-0.7400;1.5680;-0.4030;57;247;140;0;
-0.8070;1.5550;-0.4100;51;241;147;0;
-0.7820;1.6040;-0.4500;57;240;221;188;
-0.7530;1.5390;-0.4500;56;235;208;181;
-0.7910;1.5820;-0.4510;82;165;82;16;
-0.8380;1.5790;-0.4500;78;249;249;251;
-0.7910;1.5420;-0.4340;18;242;151;0;
-0.8040;1.6100;-0.4490;50;240;240;238;
-0.8150;1.5520;-0.4500;77;244;245;249;
-0.7960;1.5700;-0.3940;46;248;214;2;
-0.7730;1.5900;-0.3910;32;241;140;0;
-0.8100;1.5230;-0.4490;75;244;244;236;
-0.7440;1.5950;-0.4490;52;244;242;227;
-0.7600;1.5650;-0.4490;60;104;16;0;
-0.8080;1.5580;-0.4240;30;246;132;0;
-0.7680;1.6010;-0.4130;37;237;122;0;
-0.7610;1.5360;-0.4090;19;244;144;0;
-0.8050;1.5840;-0.4490;75;249;247;235;
-0.8070;1.5770;-0.4170;36;234;105;1;
-0.7640;1.5450;-0.3910;19;251;174;0;
-0.8370;1.6160;-0.4490;72;104;58;8;
-0.7990;1.5490;-0.4370;21;234;155;50;
-0.8060;1.5730;-0.4170;36;247;128;0;
-0.7510;1.5880;-0.4310;21;224;113;0;
-0.8100;1.5290;-0.4490;73;244;244;242;
-0.7560;1.5970;-0.4220;29;221;109;0;
-0.8370;1.5620;-0.4510;76;249;249;251;
-0.7660;1.5610;-0.4500;45;138;27;0;
-0.8240;1.5990;-0.4510;74;249;249;247;
-0.7650;1.5320;-0.4500;50;236;176;142;
-0.7850;1.5860;-0.4470;56;109;53;6;
-0.7440;1.5740;-0.4190;32;241;121;0;
-0.7490;1.5480;-0.4500;56;237;194;162;
-0.7360;1.6200;-0.4490;53;247;247;245;
-0.7830;1.5460;-0.3910;36;246;201;0;
-0.8040;1.5750;-0.4040;37;242;122;0;
-0.7680;1.5850;-0.3860;30;247;177;1;
-0.7680;1.5340;-0.4270;33;246;132;0;
-0.7820;1.6000;-0.4050;62;240;127;0;
-0.7520;1.5590;-0.4500;53;177;104;63;
-0.7470;1.5630;-0.4310;15;228;119;0;
-0.7730;1.5960;-0.4510;57;151;83;36;
-0.8240;1.5260;-0.4500;77;246;245;241;
-0.8300;1.5890;-0.4480;48;236;237;242;
-0.8010;1.5720;-0.4010;61;248;167;0;
-0.7940;1.5510;-0.3980;38;242;192;0;
-0.8210;1.6130;-0.4500;45;246;251;247;
-0.7540;1.5430;-0.4500;53;236;171;133;
-0.7840;1.5780;-0.4500;81;120;42;0;
-0.7450;1.5830;-0.4270;24;242;129;0;
-0.8060;1.5370;-0.4500;74;244;246;243;
-0.7630;1.6020;-0.4140;27;241;117;1;
-0.8070;1.5560;-0.4280;29;241;133;0;
-0.7930;1.5660;-0.3860;24;241;182;0;
-0.7630;1.5940;-0.3990;29;233;116;13;
-0.7550;1.5200;-0.4500;71;244;236;223;
-0.7890;1.5910;-0.4500;78;227;157;123;
-0.7500;1.5690;-0.4490;43;168;109;29;
-0.7840;1.5530;-0.3840;25;240;240;20;
-0.8310;1.6070;-0.4480;76;248;248;248;
-0.7750;1.5400;-0.3960;36;246;197;0;
-0.8040;1.5800;-0.4220;19;236;126;13;
-0.7800;1.5800;-0.4510;57;88;28;4;
-0.7860;1.5400;-0.4360;23;213;106;0;
-0.7330;1.6070;-0.4500;52;242;242;244;
-0.7460;1.5540;-0.4250;25;246;122;0;
-0.8050;1.5690;-0.4150;40;246;124;0;
-0.7340;1.5910;-0.4500;53;250;250;248;
-0.7930;1.5200;-0.4490;75;246;239;231;
-0.7930;1.5940;-0.4150;24;246;146;0;
-0.7880;1.5660;-0.4490;65;125;45;0;
-0.7650;1.5560;-0.4490;47;144;34;0;
-0.7660;1.6030;-0.4070;34;243;130;2;
-0.7680;1.5370;-0.4490;50;236;174;135;
-0.8300;1.5830;-0.4490;76;249;249;251;
-0.7520;1.5780;-0.3950;30;249;156;0;
-0.7530;1.5430;-0.4130;24;249;138;0;
-0.7820;1.6130;-0.4510;73;248;246;225;
-0.7830;1.5510;-0.3860;23;245;237;30;
-0.8370;1.5710;-0.4490;48;236;239;244;
-0.8080;1.5890;-0.4490;49;236;238;225;
-0.7790;1.5260;-0.4490;75;244;235;204;
-0.7930;1.5960;-0.4490;73;247;244;235;
-0.8050;1.5640;-0.4140;48;245;138;0;
-0.7990;1.5590;-0.3990;53;244;174;0;
-0.7530;1.6000;-0.4490;40;245;250;243;
-0.7680;1.5340;-0.4510;73;242;208;173;
-0.7910;1.5850;-0.3970;36;248;189;1;
-0.7850;1.5750;-0.3870;34;244;242;43;
-0.8070;1.5460;-0.4130;42;230;120;7;
-0.7890;1.6190;-0.4500;75;248;248;248;
-0.7470;1.5480;-0.4210;24;246;117;0;
-0.8020;1.5740;-0.4090;47;248;136;0;
-0.8200;1.5860;-0.4470;52;239;246;239;
-0.7980;1.5320;-0.4490;44;223;182;136;
-0.7900;1.5980;-0.4210;20;235;174;83;
-0.7830;1.5610;-0.3820;22;248;225;113;
-0.7400;1.5620;-0.4050;60;247;125;0;
-0.7590;1.5970;-0.4270;24;223;111;0;
-0.7690;1.5300;-0.4500;49;237;182;152;
-0.7460;1.5870;-0.4210;24;242;112;0;
-0.7460;1.5730;-0.3980;28;238;142;0;
-0.7820;1.5490;-0.3890;33;245;222;4;
-0.7960;1.6170;-0.4500;74;247;249;246;
-0.8020;1.5450;-0.4300;19;247;151;5;
-0.7720;1.5760;-0.3820;19;251;191;0;
-0.8040;1.5840;-0.4190;43;226;106;0;
-0.7890;1.5350;-0.4510;75;246;212;175;
-0.7560;1.6010;-0.4500;53;243;216;195;
-0.8080;1.5580;-0.4240;23;237;112;2;
-0.7400;1.5650;-0.4120;44;247;118;0;
-0.7820;1.5950;-0.4330;18;222;131;1;
-0.7640;1.5240;-0.4500;39;247;245;233;
-0.7830;1.5900;-0.4380;35;206;101;0;
-0.8000;1.5700;-0.4500;83;191;114;70;
-0.7450;1.5520;-0.4230;26;249;125;1;
-0.7850;1.6110;-0.4480;72;233;235;198;
-0.8300;1.5420;-0.4500;76;245;249;248;
-0.7480;1.5790;-0.4320;19;231;116;0;
-0.8230;1.5820;-0.4490;53;241;244;237;
-0.7800;1.5380;-0.4370;18;231;146;4;
-0.7760;1.6040;-0.4080;44;241;126;0;
-0.7560;1.5550;-0.4380;24;239;129;4;
-0.8370;1.5670;-0.4480;38;251;248;241;
-0.7940;1.5930;-0.4180;25;245;146;0;
-0.7890;1.5170;-0.4500;77;245;238;230;
-0.7900;1.5920;-0.4020;84;242;117;1;
-0.8160;1.5680;-0.4500;44;237;240;229;
-0.7950;1.5550;-0.3960;43;247;206;4;
-0.7780;1.6050;-0.4160;44;227;121;1;
-0.7270;1.5390;-0.4500;52;243;244;246;
-0.7680;1.5810;-0.3840;12;244;196;94;
-0.7500;1.5790;-0.3910;32;246;174;1;
-0.7550;1.5410;-0.4010;50;248;177;0;
-0.7990;1.6100;-0.4490;74;248;248;248;
-0.8040;1.5520;-0.4030;37;247;157;0;
-0.7460;1.5700;-0.4300;23;247;136;2;
-0.7980;1.5900;-0.4200;26;247;137;0;
-0.7690;1.5230;-0.4520;74;245;238;230;
-0.7920;1.5950;-0.4480;76;246;216;192;
-0.8260;1.5650;-0.4490;76;246;247;249;
-0.8100;1.5580;-0.4510;77;247;249;248;
-0.7760;1.6010;-0.4250;21;220;127;0;
-0.7570;1.5360;-0.4200;18;245;176;99;
-0.8010;1.5840;-0.4090;34;246;139;0;
-0.8040;1.5770;-0.4080;42;247;137;0;
-0.7260;1.5440;-0.4510;54;238;242;243;
-0.7810;1.6160;-0.4490;54;244;228;205;
-0.8050;1.5490;-0.4160;33;246;145;1;
-0.7340;1.5730;-0.4500;54;243;245;242;
-0.7460;1.5880;-0.4050;40;243;135;1;
-0.8290;1.5290;-0.4480;47;249;249;251;
-0.7960;1.5970;-0.4240;43;232;124;0;
-0.8060;1.5620;-0.4320;26;244;139;0;
-0.7600;1.5600;-0.4420;42;244;122;0;
-0.7650;1.5990;-0.4070;42;237;121;0;
-0.7440;1.5320;-0.4490;50;238;218;121;
-0.7390;1.5860;-0.4490;51;241;222;192;
-0.7590;1.5740;-0.3850;13;138;86;13;
-0.8040;1.5470;-0.4130;45;237;130;0;
-0.7890;1.6200;-0.4480;56;242;228;199;
-0.7830;1.5460;-0.3900;11;253;235;149;
-0.8340;1.5750;-0.4500;77;249;249;251;
-0.7300;1.5850;-0.4500;53;240;244;245;
-0.7610;1.5340;-0.4250;35;244;132;0;
-0.7710;1.6000;-0.4490;57;178;112;64;
-0.7560;1.5600;-0.3870;16;251;192;4;
-0.7940;1.5630;-0.3930;47;244;210;0;
-0.7570;1.5960;-0.4250;27;224;112;0;
-0.8090;1.5270;-0.4480;51;244;240;237;
-0.7930;1.5880;-0.4360;34;221;114;0;
-0.8080;1.5720;-0.4120;33;234;101;0;
-0.7550;1.5500;-0.4500;51;216;151;113;
-0.7940;1.6140;-0.4500;51;238;239;225;
-0.7550;1.5430;-0.4310;17;243;130;0;
-0.7910;1.5780;-0.4510;83;156;73;5;
-0.7800;1.5830;-0.3880;20;246;160;0;
-0.8320;1.5370;-0.4500;74;246;246;244;
-0.7760;1.6020;-0.4010;41;245;139;1;
-0.7980;1.5570;-0.3940;42;242;206;0;
-0.8060;1.5660;-0.4260;28;248;136;2;
-0.7410;1.5940;-0.4500;50;250;251;255;
-0.7390;1.5210;-0.4490;52;240;240;242;
-0.7560;1.5910;-0.3960;19;228;116;16;
-0.8080;1.5690;-0.4220;21;239;127;0;
-0.7450;1.5530;-0.4050;37;246;136;0;
-0.7650;1.6080;-0.4500;52;244;233;203;
-0.7970;1.5410;-0.4510;74;249;240;223;
-0.7570;1.5800;-0.4490;55;178;59;3;
-0.8020;1.5810;-0.4140;33;246;135;1;
-0.7690;1.5400;-0.4500;52;238;169;130;
-0.8310;1.6070;-0.4500;77;248;248;248;
-0.7930;1.5540;-0.4440;29;234;128;8;
-0.8000;1.5690;-0.4010;61;247;172;1;
-0.7930;1.5910;-0.4290;36;234;127;0;
-0.8160;1.5200;-0.4480;74;245;242;235;
-0.7960;1.5930;-0.4500;76;244;246;232;
-0.7980;1.5660;-0.3980;33;242;148;0;
-0.7960;1.5560;-0.3960;44;245;202;0;
-0.8050;1.6030;-0.4490;74;248;248;246;
-0.8030;1.5370;-0.4500;74;246;248;245;
-0.8060;1.5820;-0.4200;28;246;134;0;
-0.7790;1.5780;-0.3860;30;250;247;32;
-0.7630;1.5430;-0.4500;54;235;166;133;
-0.8220;1.6130;-0.4480;49;238;238;238;
-0.7610;1.5510;-0.4480;43;223;104;12;
-0.7460;1.5710;-0.4500;57;213;136;110;
-0.8190;1.5890;-0.4500;46;240;240;242;
-0.8170;1.5260;-0.4500;72;246;245;240;
-0.7880;1.5960;-0.4100;25;242;151;0;
-0.7640;1.5640;-0.3830;27;242;212;16;
-0.7870;1.5590;-0.3860;35;246;244;45;
-0.8010;1.6000;-0.4500;73;248;248;246;
-0.7790;1.5340;-0.4070;12;240;141;14;
-0.7810;1.5850;-0.3860;22;246;205;0;
-0.7450;1.5760;-0.3970;29;237;143;0;
-0.7800;1.5460;-0.4470;43;241;115;2;
-0.7520;1.6190;-0.4490;71;248;248;248;
-0.7930;1.5480;-0.4490;81;244;191;141;
-0.7440;1.5740;-0.4040;28;243;130;0;
-0.7630;1.5870;-0.4500;62;108;41;0;
-0.7540;1.5320;-0.4490;49;241;235;221;
-0.7870;1.5980;-0.4130;23;246;158;0;
-0.8140;1.5610;-0.4500;75;244;248;249;
-0.7400;1.5620;-0.4490;52;238;213;191;
-0.7780;1.5980;-0.4010;32;240;121;1;
-0.7850;1.5300;-0.4500;50;235;178;148;
-0.7520;1.5870;-0.4320;19;250;131;1;
-0.7560;1.5730;-0.4410;42;239;114;0;
-0.7560;1.5490;-0.3940;29;251;183;10;
-0.8150;1.6170;-0.4490;72;247;249;248;
-0.7900;1.5450;-0.3960;28;243;228;5;
-0.8150;1.5760;-0.4480;73;248;248;246;
-0.8020;1.5840;-0.4150;28;244;137;0;
-0.7910;1.5350;-0.4230;34;236;120;0;
-0.7790;1.6010;-0.4240;21;217;125;0;
-0.8330;1.5580;-0.4510;77;245;249;250;
-0.7810;1.5650;-0.3840;34;245;247;86;
-0.8080;1.5950;-0.4490;75;247;249;248;
-0.7830;1.5240;-0.4490;50;245;238;230;
-0.7860;1.5900;-0.4490;79;173;91;17;
-0.7580;1.5700;-0.3860;27;241;212;12;
-0.8010;1.5520;-0.4010;45;245;183;0;
-0.7410;1.6110;-0.4510;70;248;248;248;
-0.8130;1.5420;-0.4500;76;245;247;246;
-0.7890;1.5790;-0.4440;43;209;114;4;
-0.7490;1.5820;-0.3950;24;248;153;0;
-0.8310;1.5380;-0.4490;74;245;247;244;
-0.7630;1.6040;-0.4140;37;227;107;0;
-0.7940;1.5550;-0.4500;82;181;98;28;
-0.7410;1.5670;-0.4230;15;231;123;0;
-0.7500;1.5930;-0.4150;38;229;113;0;
-0.8120;1.5180;-0.4490;73;247;243;234;
-0.8260;1.5920;-0.4490;74;249;249;251;
-0.7840;1.5680;-0.3820;24;243;218;55;
-0.7980;1.5550;-0.4020;51;245;175;0;
-0.8270;1.6050;-0.4480;54;243;247;246;
-0.7930;1.5390;-0.4030;19;241;174;0;
-0.7370;1.5810;-0.4500;53;246;246;248;
-0.7750;1.5790;-0.3850;24;249;247;15;
-0.8290;1.5410;-0.4490;76;245;249;248;
-0.7310;1.6090;-0.4510;68;246;246;246;
-0.8370;1.5520;-0.4480;45;235;238;245;
-0.7420;1.5700;-0.4240;16;233;169;45;
-0.7970;1.5900;-0.4100;15;227;170;65;
-0.8370;1.5220;-0.4480;46;251;251;253;
-0.7860;1.5940;-0.4480;37;241;185;111;
-0.8070;1.5650;-0.4240;26;238;110;0;
-0.7780;1.5570;-0.3830;24;243;248;23;
-0.7990;1.6010;-0.4470;46;250;249;228;
-0.7780;1.5360;-0.4060;34;243;172;0;
-0.7460;1.5840;-0.4290;21;249;132;1;
-0.7770;1.5770;-0.3820;32;243;214;24;
-0.8050;1.5440;-0.4110;27;242;154;0;
-0.7470;1.6160;-0.4510;70;248;248;248;
-0.7940;1.5490;-0.4500;81;244;190;144;
-0.7550;1.5720;-0.3920;31;252;178;5;
-0.7960;1.5880;-0.4040;72;238;112;0;
-0.8280;1.5290;-0.4490;46;248;249;253;
-0.8120;1.5970;-0.4500;75;246;248;247;
-0.7430;1.5620;-0.4230;25;247;130;1;
-0.7980;1.5600;-0.4500;83;180;97;31;
-0.8050;1.5990;-0.4490;74;248;248;246;
-0.8270;1.5330;-0.4510;74;245;247;242;
-0.7440;1.5860;-0.4150;30;225;104;0;
-0.7410;1.5740;-0.4090;40;246;121;1;
-0.7410;1.5470;-0.4500;57;244;241;226;
-0.7830;1.6210;-0.4500;52;237;236;218;
-0.7720;1.5470;-0.3860;30;248;223;8;
-0.7760;1.5750;-0.3800;21;246;247;29;
-0.7480;1.5850;-0.4040;41;242;139;0;
-0.7530;1.5330;-0.4490;40;246;240;228;
-0.8210;1.5990;-0.4510;75;249;249;247;
-0.8250;1.5600;-0.4500;77;245;249;250;
-0.8050;1.5630;-0.4230;32;244;132;0;
-0.7600;1.5960;-0.4040;22;230;132;9;
-0.7350;1.5270;-0.4510;74;241;240;222;
-0.8000;1.5880;-0.4250;21;244;151;0;
-0.7980;1.5720;-0.3990;51;245;175;0;
-0.7920;1.5500;-0.4500;81;239;175;113;
-0.7760;1.6140;-0.4480;53;236;240;217;
-0.7610;1.5440;-0.3930;44;251;215;5;
-0.7900;1.5770;-0.4490;62;121;46;15;
-0.8050;1.5830;-0.4180;29;246;141;0;
-0.7920;1.5370;-0.4220;15;247;148;2;
-0.7680;1.6020;-0.4110;38;236;112;0;
-0.7940;1.5570;-0.4450;30;211;106;1;
-0.8070;1.5660;-0.4280;27;248;131;0;
-0.7810;1.5940;-0.3980;21;248;170;2;
-0.8100;1.5210;-0.4500;75;245;245;237;
-0.8130;1.5910;-0.4490;47;237;238;240;
-0.8200;1.5690;-0.4490;52;241;244;237;
-0.7990;1.5530;-0.4500;82;242;192;155;
-0.7960;1.6080;-0.4490;37;248;243;223;
-0.7330;1.5410;-0.4500;52;242;246;245;
-0.7920;1.5800;-0.3930;43;243;157;0;
-0.7430;1.5810;-0.4080;30;237;118;0;
-0.7920;1.5400;-0.4000;20;242;194;0;
-0.7710;1.6060;-0.4500;75;248;248;248;
-0.7640;1.5540;-0.4510;52;183;84;3;
-0.7820;1.5680;-0.3820;24;242;222;61;
-0.7880;1.5920;-0.4500;55;170;105;49;
-0.8340;1.5190;-0.4480;51;243;242;237;
-0.7630;1.5930;-0.4330;24;230;121;0;
-0.8040;1.5670;-0.4360;24;238;112;1;
-0.7610;1.5560;-0.4480;46;212;96;0;
-0.7720;1.6030;-0.4490;55;245;224;195;
-0.7920;1.5380;-0.4270;20;244;137;5;
-0.8020;1.5820;-0.4250;26;246;136;0;
-0.7610;1.5780;-0.4430;38;233;111;0;
-0.7530;1.5430;-0.4030;25;251;150;0;
-0.8050;1.6120;-0.4490;36;246;247;241;
-0.7460;1.5510;-0.4030;15;246;142;7;
-0.7340;1.5710;-0.4500;55;239;244;247;
-0.7650;1.5890;-0.4500;63;115;51;7;
-0.7310;1.5250;-0.4500;54;239;239;241;
-0.7340;1.5960;-0.4500;53;246;247;242;
-0.7630;1.5640;-0.3830;26;237;203;33;
-0.8340;1.5590;-0.4500;78;247;248;250;
-0.7630;1.6000;-0.4130;40;236;110;0;
-0.7610;1.5340;-0.4170;15;248;126;3;
-0.7960;1.5850;-0.4040;35;245;152;0;
-0.8340;1.5760;-0.4500;76;249;249;251;
-0.7330;1.5460;-0.4500;57;237;241;242;
-0.7340;1.6180;-0.4490;52;248;248;248;
-0.7490;1.5480;-0.4230;36;241;126;1;
-0.7990;1.5740;-0.3970;49;243;183;0;
-0.7980;1.5870;-0.4310;16;225;174;82;
-0.7630;1.5310;-0.4510;47;239;212;167;
-0.7690;1.5980;-0.4320;23;217;125;0;
-0.8150;1.5610;-0.4490;75;245;249;250;
-0.7430;1.5620;-0.4020;29;244;150;0;
-0.7630;1.5980;-0.4510;77;236;188;176;
-0.7810;1.5310;-0.4510;74;245;216;182;
-0.7470;1.5870;-0.4100;28;242;129;0;
-0.7550;1.5730;-0.3880;28;240;192;0;
-0.7680;1.5490;-0.3890;35;248;222;3;
-0.8010;1.6180;-0.4490;74;248;248;248;
-0.7340;1.5450;-0.4500;57;238;242;243;
-0.7470;1.5760;-0.4300;24;241;130;0;
-0.7610;1.5840;-0.3910;20;241;165;0;
-0.7910;1.5350;-0.4240;15;241;176;14;
-0.7810;1.6010;-0.4150;25;212;119;0;
-0.7500;1.5580;-0.4320;21;245;130;1;
-0.7430;1.5640;-0.3980;20;249;151;0;
-0.7580;1.5950;-0.4500;58;178;116;95;
-0.8380;1.5240;-0.4490;47;251;251;253;
-0.7990;1.5890;-0.4180;53;228;105;0;
-0.7980;1.5710;-0.4410;29;189;85;0;
-0.7620;1.5510;-0.4410;38;242;122;0;
-0.7700;1.6110;-0.4500;74;248;249;244;
-0.7980;1.5420;-0.4130;25;243;159;0;
-0.7520;1.5790;-0.4360;23;249;126;5;
-0.7800;1.5820;-0.4500;75;140;56;0;
-0.7580;1.5380;-0.4260;37;243;131;0;
-0.8350;1.6040;-0.4490;40;246;248;245;
-0.7480;1.5560;-0.4500;49;240;179;150;
-0.7900;1.5670;-0.3870;38;244;247;72;
-0.7520;1.5930;-0.4080;25;239;133;0;
-0.8210;1.5180;-0.4480;48;249;248;253;
-0.7460;1.5920;-0.4490;54;212;146;120;
-0.7510;1.5680;-0.4330;23;247;145;1;
-0.8030;1.5540;-0.4080;55;243;159;0;
-0.8010;1.6050;-0.4510;74;248;248;248;
-0.7310;1.5390;-0.4490;56;237;241;242;
-0.7590;1.5810;-0.4410;47;206;100;0;
-0.7910;1.5800;-0.3900;35;249;214;0;
-0.8000;1.5410;-0.4190;17;241;150;0;
-0.8130;1.6090;-0.4500;48;247;251;254;
-0.7500;1.5530;-0.3950;34;245;167;0;
-0.7380;1.5700;-0.4130;41;248;117;3;
-0.7550;1.5900;-0.4300;22;224;110;0;
-0.7490;1.5220;-0.4500;55;239;239;239;
-0.7930;1.5940;-0.4070;77;230;108;0;
-0.7530;1.5650;-0.3900;25;245;196;8;
-0.7860;1.5570;-0.3870;33;242;242;56;
-0.8330;1.6020;-0.4500;76;247;247;247;
-0.7700;1.5360;-0.4070;13;252;143;0;
-0.7440;1.5830;-0.4180;27;222;105;2;
-0.7790;1.5770;-0.3820;24;242;248;26;
-0.8010;1.5440;-0.4190;24;245;147;0;
-0.7760;1.6150;-0.4510;74;246;247;241;
-0.7700;1.5500;-0.4490;42;151;67;0;
-0.8040;1.5720;-0.4250;29;246;141;0;
-0.7740;1.5880;-0.4480;72;169;78;0;
-0.7890;1.5280;-0.4480;48;247;223;197;
-0.7770;1.5970;-0.4330;20;211;123;0;
-0.7420;1.5630;-0.4110;44;248;119;0;
-0.8260;1.5600;-0.4500;76;244;248;249;
-0.7680;1.5990;-0.3980;39;243;130;0;
-0.8170;1.5330;-0.4510;75;244;246;241;
-0.7870;1.5860;-0.3920;30;247;193;0;
-0.8010;1.5750;-0.4050;56;248;153;0;
-0.7600;1.5470;-0.4510;51;220;142;106;
-0.7820;1.6210;-0.4490;74;248;248;248;
-0.8040;1.5470;-0.4210;27;241;142;0;
-0.7960;1.5750;-0.3950;38;240;157;0;
-0.7670;1.5860;-0.4490;63;84;24;0;
-0.7850;1.5330;-0.4170;15;244;167;3;
-0.7780;1.5990;-0.4280;19;224;132;0;
-0.7480;1.5600;-0.3930;16;243;174;0;
-0.7450;1.5630;-0.4040;64;246;132;0;
-0.7500;1.5970;-0.4120;46;230;113;0;
-0.7640;1.5280;-0.4500;49;239;223;200;
-0.7480;1.5880;-0.4070;41;234;125;0;
-0.7940;1.5720;-0.3890;45;246;239;35;
-0.7480;1.5500;-0.4140;31;249;127;0;
-0.7630;1.6150;-0.4500;36;246;240;216;
-0.8180;1.5440;-0.4500;77;243;247;248;
-0.8070;1.5770;-0.4190;30;244;139;0;
-0.7430;1.5830;-0.4130;30;223;105;0;
-0.7930;1.5360;-0.4120;17;241;164;0;
-0.7790;1.6020;-0.4250;37;231;135;0;
-0.7940;1.5570;-0.4500;82;152;75;3;
-0.8060;1.5660;-0.4310;27;246;132;0;
-0.7640;1.5940;-0.4500;56;172;103;74;
-0.7400;1.5220;-0.4510;52;239;239;241;
-0.8020;1.5910;-0.4480;50;234;220;185;
-0.7470;1.5690;-0.3990;40;247;149;0;
-0.7500;1.5530;-0.3960;35;252;165;0;
-0.7690;1.6090;-0.4500;73;248;248;246;
-0.8320;1.5410;-0.4490;75;245;249;248;
-0.7850;1.5800;-0.3920;35;241;215;0;
-0.8030;1.5810;-0.4500;77;249;244;225;
-0.7620;1.5400;-0.4320;29;241;133;0;
-0.7630;1.6060;-0.4500;73;247;249;246;
-0.8040;1.5540;-0.4100;53;244;155;1;
-0.7790;1.5680;-0.3870;35;244;246;101;
-0.7850;1.5920;-0.3940;48;248;160;8;
-0.7640;1.5190;-0.4490;73;243;237;225;
-0.7970;1.5930;-0.4270;37;233;123;0;
-0.8320;1.5670;-0.4500;47;237;241;244;
-0.7960;1.5560;-0.3970;37;247;178;0;
-0.7690;1.6030;-0.4260;23;238;124;0;
-0.7440;1.5380;-0.4500;58;237;242;235;
-0.8000;1.5820;-0.4350;30;231;115;2;
-0.8020;1.5780;-0.4020;44;248;167;0;
-0.7500;1.5420;-0.4030;25;249;148;0;
-0.8210;1.6120;-0.4490;74;247;247;247;
-0.7720;1.5510;-0.3850;16;248;183;37;
-0.7370;1.5710;-0.4480;30;247;215;154;
-0.7630;1.5890;-0.3940;19;249;165;4;
-0.7910;1.5250;-0.4500;49;242;243;235;
-0.7870;1.5950;-0.4040;22;243;153;0;
-0.8040;1.5640;-0.4480;33;211;122;30;
-0.7400;1.5590;-0.4490;51;240;215;184;
-0.7630;1.6000;-0.4080;15;205;147;65;
-0.7640;1.5350;-0.4060;13;252;143;0;
-0.7510;1.5850;-0.3970;37;245;147;0;
-0.8280;1.5760;-0.4510;77;249;249;251;
-0.8270;1.5450;-0.4490;76;245;249;250;
-0.8320;1.6180;-0.4470;74;244;250;248;
-0.7840;1.5480;-0.4500;80;207;136;54;
-0.7410;1.5730;-0.4100;38;246;121;1;
-0.8180;1.5870;-0.4480;34;242;248;202;
-0.7740;1.5310;-0.4490;49;240;174;140;
-0.7550;1.5980;-0.4190;35;218;112;0;
-0.7900;1.5610;-0.4510;81;124;52;0;
-0.8070;1.5610;-0.4190;37;246;132;0;
-0.7580;1.5980;-0.4050;57;233;117;0;
-0.7760;1.5310;-0.4500;75;246;212;177;
-0.7610;1.5870;-0.4500;62;105;40;0;
-0.7910;1.5730;-0.3890;25;249;194;13;
-0.8020;1.5480;-0.4500;80;247;241;215;
-0.8300;1.6180;-0.4500;75;250;251;255;
-0.7950;1.5450;-0.3970;42;247;186;0;
-0.7350;1.5760;-0.4500;55;240;242;228;
-0.7620;1.5850;-0.3880;31;247;172;3;
-0.7740;1.5350;-0.4120;29;246;150;1;
-0.7680;1.6000;-0.4280;23;224;119;1;
-0.7520;1.5590;-0.4490;62;169;87;63;
-0.7820;1.5640;-0.3840;33;245;248;83;
-0.7610;1.5950;-0.3980;28;209;88;9;
-0.7380;1.5250;-0.4510;51;243;247;246;
-0.7970;1.5890;-0.4090;15;223;139;14;
-0.7320;1.5710;-0.4490;52;240;241;236;
-0.7990;1.5510;-0.4030;46;243;178;0;
-0.7390;1.6120;-0.4510;69;248;248;248;
-0.7510;1.5420;-0.4010;24;252;153;0;
-0.7680;1.5780;-0.4470;56;167;65;1;
-0.7550;1.5820;-0.3930;24;247;164;0;
-0.8040;1.5380;-0.4490;45;208;171;126;
-0.7260;1.6030;-0.4490;53;247;249;246;
-0.7790;1.5560;-0.3820;20;244;245;27;
-0.7830;1.5670;-0.3840;33;245;248;99;
-0.7610;1.5930;-0.3950;47;246;153;0;
-0.7670;1.5190;-0.4500;74;243;236;226;
-0.7860;1.5920;-0.3940;51;243;152;3;
-0.7970;1.5680;-0.3920;31;244;166;0;
-0.7880;1.5540;-0.4490;44;172;82;4;
-0.7420;1.6060;-0.4480;52;238;239;221;
-0.7900;1.5390;-0.4030;20;240;180;0;
-0.8050;1.5810;-0.4140;44;230;98;0;
-0.7760;1.5800;-0.3840;22;250;244;10;
-0.7950;1.5410;-0.4080;60;245;147;0;
-0.7330;1.6090;-0.4500;52;241;241;241;
-0.7250;1.5530;-0.4500;54;244;246;243;
-0.8000;1.5690;-0.4030;63;243;164;0;
-0.7920;1.5910;-0.4010;91;240;113;0;
-0.7630;1.5220;-0.4490;48;240;244;247;
-0.8220;1.5940;-0.4480;47;236;237;241;
-0.8040;1.5660;-0.4080;31;243;147;0;
-0.7420;1.5570;-0.4100;42;250;115;0;
-0.7610;1.6020;-0.4070;30;244;119;0;
-0.7940;1.5360;-0.4140;48;243;134;3;
-0.7660;1.5830;-0.4490;58;131;45;0;
-0.7430;1.5770;-0.3990;28;241;139;0;
-0.7520;1.5440;-0.4280;17;244;129;0;
-0.8140;1.6150;-0.4500;48;240;240;242;
-0.7870;1.5500;-0.3900;30;244;233;29;
-0.7880;1.5720;-0.4480;60;145;51;0;
-0.8020;1.5880;-0.4130;24;245;143;0;
-0.7810;1.5280;-0.4500;73;243;227;193;
-0.7910;1.5970;-0.4490;47;255;239;197;
-0.7400;1.5630;-0.4090;15;242;127;0;
-0.7960;1.5600;-0.3970;52;242;182;0;
-0.7830;1.5990;-0.4210;46;226;124;0;
-0.7690;1.5330;-0.4070;22;242;155;0;
-0.7530;1.5860;-0.3960;23;245;151;0;
-0.7980;1.5750;-0.3970;47;246;191;0;
-0.8340;1.5470;-0.4510;77;247;249;248;
-0.7970;1.6210;-0.4500;72;248;248;248;
-0.7710;1.5470;-0.4490;48;135;43;0;
-0.8340;1.5750;-0.4490;50;238;239;244;
-0.7660;1.5860;-0.3860;29;246;176;0;
-0.7270;1.5330;-0.4500;54;244;245;247;
-0.7580;1.5990;-0.4130;19;217;133;9;
-0.8140;1.5600;-0.4480;52;244;232;216;
-0.7760;1.5630;-0.3810;19;244;247;36;
-0.8240;1.5970;-0.4490;73;249;249;247;
-0.7320;1.5280;-0.4500;54;240;240;240;
-0.8110;1.5880;-0.4490;55;247;245;224;
-0.7390;1.5720;-0.4130;18;235;181;95;
-0.8280;1.5500;-0.4490;79;248;248;250;
-0.7420;1.6150;-0.4500;55;241;242;237;
-0.7470;1.5440;-0.4500;49;238;208;182;
-0.7950;1.5770;-0.3950;42;248;207;3;
-0.7930;1.5830;-0.4500;82;181;101;38;
-0.7910;1.5360;-0.4190;38;239;120;0;
-0.7660;1.6020;-0.4260;25;224;112;2;
-0.7400;1.5570;-0.4190;22;238;135;0;
-0.7880;1.5650;-0.3860;37;246;247;83;
-0.7500;1.5940;-0.4100;45;237;119;0;
-0.7810;1.5220;-0.4490;71;245;238;230;
-0.7470;1.5900;-0.4100;40;238;122;3;
-0.7950;1.5700;-0.3950;46;245;211;0;
-0.7420;1.5530;-0.4500;59;241;234;208;
-0.8200;1.6090;-0.4490;38;248;250;245;
-0.7950;1.5410;-0.4010;23;246;186;2;
-0.7790;1.5800;-0.3830;14;232;150;51;
-0.7890;1.5810;-0.4500;81;150;71;4;
-0.8000;1.5390;-0.4190;16;242;148;0;
-0.8180;1.6060;-0.4480;53;246;248;247;
-0.8030;1.5540;-0.4350;23;244;151;0;
-0.8080;1.5680;-0.4260;24;235;108;3;
-0.7970;1.5920;-0.4150;25;245;143;0;
-0.7810;1.5180;-0.4510;75;246;239;229;
-0.7710;1.5930;-0.4500;74;167;87;18;
-0.8070;1.5670;-0.4110;58;248;141;1;
-0.7990;1.5560;-0.4000;50;245;178;1;
-0.7960;1.6040;-0.4490;54;245;233;211;
-0.7850;1.5380;-0.4370;26;215;109;0;
-0.7880;1.5820;-0.4410;38;170;77;0;
-0.7430;1.5790;-0.4010;34;244;134;0;
-0.7370;1.5420;-0.4500;50;244;244;244;
-0.7940;1.6110;-0.4490;38;245;240;218;
-0.7960;1.5510;-0.4490;83;235;170;104;
-0.8060;1.5710;-0.4050;25;245;147;0;
-0.7440;1.5890;-0.4180;27;220;98;0;
-0.7670;1.5240;-0.4490;74;241;236;230;
-0.7640;1.5950;-0.4490;50;214;152;101;
-0.7470;1.5640;-0.4500;60;223;156;130;
-0.7990;1.5580;-0.3990;53;244;174;0;
-0.7750;1.6010;-0.4010;43;246;138;3;
-0.7540;1.5350;-0.4170;43;246;129;0;
-0.7630;1.5840;-0.3890;17;239;172;0;
-0.8070;1.5760;-0.4090;40;246;132;0;
-0.7760;1.5450;-0.3880;28;245;205;0;
-0.7580;1.6180;-0.4490;52;244;239;220;
-0.7450;1.5490;-0.4120;31;245;131;0;
-0.7530;1.5730;-0.4380;27;243;130;2;
-0.7700;1.5870;-0.4410;46;201;93;2;
-0.8380;1.5310;-0.4480;47;249;251;250;
-0.7560;1.5980;-0.4230;28;223;111;0;
-0.7430;1.5620;-0.4070;19;242;131;0;
-0.8080;1.5610;-0.4290;27;246;139;0;
-0.7880;1.5980;-0.4100;23;244;156;0;
-0.7300;1.5310;-0.4500;54;240;240;242;
-0.7950;1.5870;-0.3980;55;243;135;0;
-0.7920;1.5740;-0.3920;43;246;235;19;
-0.8060;1.5480;-0.4160;31;243;147;0;
-0.8140;1.6180;-0.4500;72;246;248;247;
-0.8220;1.5460;-0.4490;76;243;247;248;
-0.8060;1.5760;-0.4110;38;244;127;0;
-0.8080;1.5850;-0.4510;76;249;249;249;
-0.7840;1.5340;-0.4220;27;247;133;0;
-0.7640;1.6000;-0.4230;30;220;104;3;
-0.7420;1.5590;-0.4190;14;243;112;0;
-0.8100;1.5640;-0.4130;43;247;135;0;
-0.8360;1.5960;-0.4510;74;249;249;247;
-0.7370;1.5250;-0.4500;52;243;247;246;
-0.7700;1.5890;-0.3900;32;245;149;2;
-0.7730;1.5710;-0.3820;15;246;201;14;
-0.7980;1.5510;-0.4020;44;245;185;0;
-0.8240;1.6120;-0.4480;74;246;246;246;
-0.7930;1.5430;-0.4490;76;241;207;172;
-0.8040;1.5780;-0.4490;79;236;194;170;
-0.8040;1.5820;-0.4190;29;245;138;0;
-0.8290;1.5380;-0.4490;52;244;243;239;
-0.7720;1.6030;-0.4190;29;218;114;1;
-0.7970;1.5560;-0.4410;25;244;127;0;
-0.8040;1.5670;-0.4080;68;245;147;0;
-0.7510;1.5930;-0.4230;26;218;105;0;
-0.7650;1.5190;-0.4490;48;237;245;247;
-0.7930;1.5920;-0.4020;25;246;146;0;
-0.8060;1.5680;-0.4310;24;236;115;0;
-0.7910;1.5540;-0.4480;52;169;79;1;
-0.8090;1.6060;-0.4490;73;248;248;248;
-0.7570;1.5400;-0.4030;19;255;151;0;
-0.7380;1.5810;-0.4500;53;246;231;212;
-0.8190;1.5800;-0.4490;33;253;244;229;
-0.7570;1.5410;-0.4000;19;234;171;6;
-0.8330;1.6080;-0.4500;76;248;248;248;
-0.8050;1.5530;-0.4280;26;246;136;0;
-0.8160;1.5690;-0.4490;77;248;248;250;
-0.7550;1.5910;-0.4490;54;222;153;120;
-0.8180;1.5210;-0.4500;75;244;243;238;
-0.7450;1.5940;-0.4490;52;245;238;220;
-0.8060;1.5660;-0.4060;64;247;157;1;
-0.8010;1.5570;-0.4490;82;226;165;121;
-0.7350;1.6020;-0.4510;53;243;243;243;
-0.7650;1.5370;-0.4050;44;244;180;0;
-0.7960;1.5830;-0.3910;41;247;164;0;
-0.8020;1.5770;-0.4060;43;245;150;0;
-0.7880;1.5440;-0.3940;25;240;220;0;
-0.7780;1.6140;-0.4500;74;245;248;239;
-0.7970;1.5500;-0.4000;36;244;189;0;
-0.7260;1.5720;-0.4500;52;242;242;242;
-0.7790;1.5880;-0.3890;20;246;197;6;
-0.7450;1.5270;-0.4500;56;245;245;247;
-0.7750;1.5960;-0.3980;33;241;129;1;
-0.8080;1.5630;-0.4250;28;249;132;0;
-0.7740;1.5600;-0.3840;22;248;218;0;
-0.7810;1.5990;-0.4040;62;242;129;0;
-0.7650;1.5330;-0.4180;13;251;126;0;
-0.7820;1.5850;-0.3890;26;250;205;0;
-0.7480;1.5750;-0.3960;33;246;148;0;
-0.7510;1.5470;-0.3980;17;238;218;168;
-0.8360;1.6210;-0.4480;76;193;179;168;
-0.7660;1.5470;-0.4490;40;200;132;67;
-0.7430;1.5740;-0.4490;55;242;196;162;
-0.7330;1.5860;-0.4490;53;246;248;243;
-0.8310;1.5330;-0.4490;76;245;247;242;
-0.7900;1.5990;-0.4140;90;232;122;1;
-0.7660;1.5600;-0.4490;57;173;68;3;
-0.8370;1.5630;-0.4500;76;248;248;250;
-0.8210;1.5970;-0.4490;48;237;238;240;
-0.7540;1.5290;-0.4500;49;238;238;236;
-0.7480;1.5880;-0.4270;19;252;129;0;
-0.7680;1.5720;-0.3820;16;114;85;25;
-0.7460;1.5500;-0.4260;26;240;132;0;
-0.7300;1.6150;-0.4500;69;248;248;248;
-0.7850;1.5440;-0.4490;43;152;66;19;
-0.8050;1.5770;-0.4220;30;245;140;0;
-0.8000;1.5840;-0.4300;21;249;151;2;
-0.8080;1.5360;-0.4510;73;244;246;243;
-0.7720;1.6010;-0.4090;36;234;122;0;
-0.7990;1.5570;-0.4490;53;195;109;48;
-0.7470;1.5650;-0.4340;15;231;159;15;
-0.7450;1.5940;-0.4490;55;229;187;165;
-0.7250;1.5220;-0.4510;72;241;233;214;
-0.7930;1.5900;-0.4020;85;239;112;0;
-0.7670;1.5700;-0.3810;17;244;206;19;
-0.7860;1.5520;-0.3870;30;243;240;47;
-0.8220;1.6090;-0.4510;73;248;248;248;
-0.7760;1.5410;-0.4400;20;243;128;3;
-0.7670;1.5790;-0.4500;55;118;35;1;
-0.7460;1.5810;-0.3970;25;245;142;1;
-0.7630;1.5390;-0.4490;48;227;140;69;
-0.7980;1.6050;-0.4490;74;248;248;248;
-0.7670;1.5550;-0.3840;28;244;220;0;
-0.7450;1.5680;-0.4490;42;214;179;115;
-0.7830;1.5920;-0.3970;25;245;173;1;
-0.7700;1.5180;-0.4510;76;245;238;228;
-0.7490;1.5930;-0.4130;38;230;110;0;
-0.8070;1.5670;-0.4240;29;245;133;0;
-0.7520;1.5550;-0.4340;22;245;134;0;
-0.7700;1.6040;-0.4170;38;233;118;0;
-0.8340;1.5380;-0.4480;52;244;243;238;
-0.7460;1.5820;-0.4020;28;245;140;0;
-0.8150;1.5790;-0.4500;74;248;248;248;
-0.7940;1.5420;-0.4060;61;246;156;0;
-0.7400;1.6110;-0.4510;70;248;248;248;
-0.8080;1.5520;-0.4250;27;242;128;0;
-0.7400;1.5700;-0.4030;19;223;126;9;
-0.7940;1.5900;-0.4090;24;241;140;0;
-0.8000;1.5240;-0.4500;72;246;241;235;
-0.7790;1.5950;-0.4000;32;241;127;2;
-0.8310;1.5650;-0.4490;51;243;242;238;
-0.7380;1.5580;-0.4490;42;246;229;183;
-0.7610;1.6010;-0.4190;35;210;99;0;
-0.7870;1.5350;-0.4150;40;243;130;0;
-0.8040;1.5840;-0.4490;56;239;192;162;
-0.7840;1.5760;-0.3860;24;231;180;52;
-0.8040;1.5450;-0.4110;29;244;156;0;
-0.8370;1.6170;-0.4480;43;253;246;236;
-0.7540;1.5490;-0.3920;28;247;180;3;
-0.7890;1.5730;-0.4480;71;125;41;0;
-0.7780;1.5870;-0.3870;17;251;192;0;
-0.7800;1.5300;-0.4490;50;244;178;146;
-0.7550;1.5980;-0.4160;20;236;135;5;
-0.8060;1.5620;-0.4120;55;246;146;0;
-0.7970;1.5610;-0.3980;53;247;182;2;
-0.7790;1.5980;-0.4000;15;253;196;93;
-0.7620;1.5320;-0.4290;14;224;188;14;
-0.7500;1.5870;-0.4320;19;246;127;0;
-0.8050;1.5740;-0.4500;80;253;224;208;
-0.8130;1.5480;-0.4500;78;245;249;250;
-0.7610;1.6190;-0.4510;71;248;248;248;
-0.7980;1.5460;-0.4060;46;248;155;0;
-0.7940;1.5760;-0.3920;43;242;216;0;
-0.8010;1.5850;-0.4080;54;234;108;0;
-0.8200;1.5340;-0.4500;76;244;246;241;
-0.7700;1.6000;-0.4130;37;235;109;0;
-0.8240;1.5590;-0.4500;77;245;249;250;
-0.7320;1.5640;-0.4490;56;244;243;248;
-0.7640;1.5960;-0.4510;73;194;117;75;
-0.8220;1.5260;-0.4500;75;246;245;241;
-0.7870;1.5890;-0.4380;35;207;97;2;
-0.7730;1.5710;-0.3810;21;244;242;35;
-0.7510;1.5510;-0.4490;49;225;157;122;
-0.7620;1.6130;-0.4470;53;243;229;216;
-0.7930;1.5430;-0.4340;21;236;123;1;
-0.7660;1.5780;-0.4460;55;173;72;2;
-0.7480;1.5820;-0.4280;24;246;132;0;
-0.7910;1.5370;-0.4270;20;240;133;1;
-0.8230;1.6030;-0.4500;73;247;247;247;
-0.8080;1.5560;-0.4500;76;243;249;247;
-0.7450;1.5670;-0.3950;39;247;158;0;
-0.7640;1.5930;-0.3950;38;243;145;0;
-0.8080;1.5200;-0.4500;51;244;245;249;
-0.7410;1.5910;-0.4480;52;243;208;176;
-0.7440;1.5690;-0.4000;20;244;152;7;
-0.7810;1.5540;-0.4490;34;190;90;4;
-0.7930;1.6070;-0.4480;75;248;249;243;
-0.7670;1.5400;-0.3970;38;248;199;0;
-0.7720;1.5810;-0.3830;33;244;195;0;
-0.8370;1.5800;-0.4490;38;247;249;244;
-0.7890;1.5410;-0.4000;21;248;176;4;
-0.7730;1.6080;-0.4510;74;248;248;248;
-0.7880;1.5530;-0.3890;33;242;238;42;
-0.7920;1.5690;-0.3900;46;246;244;48;
-0.7940;1.5910;-0.4140;61;230;108;0;
-0.7520;1.5210;-0.4490;47;246;246;220;
-0.7910;1.5940;-0.4000;16;228;126;2;
-0.7450;1.5660;-0.4290;15;230;121;2;
-0.8090;1.5570;-0.4180;22;234;119;0;
-0.8100;1.6020;-0.4500;75;248;248;246;
-0.8140;1.5370;-0.4470;29;238;156;83;
-0.7860;1.5830;-0.3890;29;246;215;2;
-0.8000;1.5780;-0.4340;30;238;119;1;
-0.8010;1.5430;-0.4050;27;243;171;0;
-0.7400;1.6140;-0.4500;70;248;248;248;
-0.7540;1.5500;-0.3930;14;223;174;46;
-0.8080;1.5720;-0.4130;22;240;125;0;
-0.7620;1.5880;-0.3910;32;244;172;0;
-0.7580;1.5270;-0.4500;74;244;239;235;
-0.7870;1.5960;-0.4060;23;245;149;0;
-0.8100;1.5630;-0.4500;77;246;248;247;
-0.8070;1.5600;-0.4280;27;250;140;1;
-0.7870;1.6000;-0.4250;38;233;126;0;
-0.7440;1.5340;-0.4480;56;243;242;247;
-0.7480;1.5850;-0.4300;20;246;127;0;
-0.8040;1.5750;-0.4510;77;245;245;235;
-0.7350;1.5460;-0.4490;56;233;243;235;
-0.7890;1.6200;-0.4500;55;245;237;216;
-0.8020;1.5470;-0.4500;78;250;243;215;
-0.7930;1.5740;-0.3910;42;245;235;16;
-0.8000;1.5860;-0.4240;41;234;110;0;
-0.8070;1.5320;-0.4480;50;237;245;247;
-0.7850;1.5990;-0.4090;21;246;156;0;
-0.7840;1.5600;-0.3850;32;244;247;52;
-0.7800;1.5620;-0.3830;14;249;237;135;
-0.7930;1.5970;-0.4510;72;246;248;245;
-0.7810;1.5290;-0.4510;72;245;230;201;
-0.7370;1.5880;-0.4500;54;240;241;227;
-0.8010;1.5730;-0.4490;82;192;118;73;
-0.8320;1.5490;-0.4500;78;248;248;250;
-0.7280;1.6160;-0.4490;51;248;248;248;
-0.7340;1.5440;-0.4510;56;239;240;242;
-0.7990;1.5770;-0.3950;45;243;188;0;
-0.7510;1.5840;-0.4330;21;244;126;0;
-0.8020;1.5360;-0.4480;52;242;211;190;
-0.8350;1.6010;-0.4490;47;238;238;240;
-0.7540;1.5580;-0.4360;23;246;135;2;
-0.7910;1.5650;-0.3880;40;247;248;66;
-0.7760;1.5950;-0.3950;33;236;130;0;
-0.7430;1.5230;-0.4490;74;244;232;216;
-0.7960;1.5900;-0.4110;64;229;109;0;
-0.8040;1.5700;-0.4490;54;228;165;121;
-0.8300;1.5520;-0.4500;80;245;249;250;
-0.8320;1.6100;-0.4480;74;246;248;247;
-0.7950;1.5410;-0.4110;24;243;159;0;
-0.7930;1.5790;-0.3940;38;242;199;0;
-0.7580;1.5810;-0.3900;34;241;179;0;
-0.7680;1.5390;-0.3950;37;247;202;0;
-0.7430;1.6050;-0.4490;54;244;245;237;
-0.7450;1.5550;-0.4020;16;245;139;0;
-0.7990;1.5680;-0.4410;27;233;114;0;
-0.7600;1.5920;-0.4500;58;143;67;41;
-0.8140;1.5170;-0.4500;76;247;242;236;
-0.8190;1.5930;-0.4500;76;249;249;251;
-0.7400;1.5670;-0.4040;56;253;146;4;
-0.7490;1.5550;-0.3920;29;246;199;0;
-0.7940;1.6040;-0.4500;75;248;249;244;
-0.7400;1.5380;-0.4500;56;242;241;237;
-0.7670;1.5820;-0.3840;28;242;183;0;
-0.8030;1.5790;-0.4320;22;249;154;0;
-0.7770;1.5420;-0.4450;25;241;156;14;
-0.7560;1.6110;-0.4490;51;242;235;207;
-0.7460;1.5520;-0.4110;35;248;122;1;
-0.8060;1.5700;-0.4480;53;222;159;106;
-0.7500;1.5900;-0.4110;41;237;121;0;
-0.8320;1.5240;-0.4500;76;246;245;241;
-0.7870;1.5950;-0.4040;22;242;153;0;
-0.8020;1.5650;-0.4370;25;249;135;2;
-0.7570;1.5580;-0.3870;30;248;213;1;
-0.7580;1.6010;-0.4150;26;240;116;2;
-0.7960;1.5350;-0.4490;39;214;179;139;
-0.8230;1.5840;-0.4490;74;249;249;251;
-0.7990;1.5760;-0.3960;38;243;148;0;
-0.7810;1.5450;-0.4500;77;247;194;118;
-0.7430;1.6170;-0.4520;69;248;248;248;
-0.8020;1.5490;-0.4340;22;245;150;0;
-0.8040;1.5730;-0.4270;27;248;136;0;
-0.8010;1.5870;-0.4220;44;235;111;0;
-0.7390;1.5300;-0.4500;74;244;238;202;
-0.7590;1.5970;-0.4260;15;243;189;83;
-0.7700;1.5620;-0.3820;12;255;234;107;
-0.7950;1.5610;-0.4440;29;187;83;0;
-0.7580;1.5980;-0.4040;51;236;121;2;
-0.7290;1.5320;-0.4500;53;243;244;246;
-0.7820;1.5860;-0.3860;39;246;193;25;
-0.7660;1.5740;-0.4500;61;66;7;3;
-0.7880;1.5480;-0.3980;31;241;212;0;
-0.7970;1.6190;-0.4500;74;248;248;248;
-0.8020;1.5460;-0.4500;75;248;243;224;
-0.8210;1.5750;-0.4490;74;248;248;248;
-0.7730;1.5850;-0.3850;25;245;179;0;
-0.7680;1.5340;-0.4490;73;244;209;171;
-0.7730;1.6000;-0.4040;35;244;135;4;
-0.7890;1.5590;-0.3850;27;245;207;0;
-0.8070;1.5640;-0.4330;25;246;136;0;
-0.7420;1.5960;-0.4520;53;240;240;238;
-0.8140;1.5260;-0.4500;74;245;244;239;
-0.7990;1.5890;-0.4080;24;243;142;0;
-0.8050;1.5710;-0.4500;80;246;214;199;
-0.7640;1.5510;-0.3900;39;244;224;3;
-0.8130;1.6130;-0.4500;49;240;240;242;
-0.7750;1.5430;-0.4500;74;249;197;121;
-0.7450;1.5780;-0.4000;36;248;143;0;
-0.7990;1.5830;-0.4500;77;233;179;151;
-0.7630;1.5370;-0.4290;15;246;139;1;
-0.7890;1.6030;-0.4490;52;235;237;215;
-0.7570;1.5560;-0.3870;14;241;193;21;
-0.7580;1.5660;-0.4500;41;127;51;0;
-0.7830;1.5930;-0.3950;20;247;170;2;
-0.7430;1.5200;-0.4490;54;244;246;245;
-0.8150;1.5910;-0.4480;34;241;246;205;
-0.7880;1.5690;-0.3820;24;241;204;38;
-0.8050;1.5540;-0.4280;26;246;136;0;
-0.7390;1.6070;-0.4510;70;242;248;246;
-0.7970;1.5400;-0.4500;73;245;224;197;
-0.7640;1.5800;-0.4510;60;119;48;2;
-0.7570;1.5800;-0.3920;25;248;172;0;
-0.8020;1.5400;-0.4190;17;244;150;2;
-0.7690;1.6070;-0.4500;75;248;248;248;
-0.8030;1.5530;-0.4110;50;239;148;0;
-0.8060;1.5690;-0.4270;28;246;134;0;
-0.7720;1.5910;-0.4510;59;121;55;7;
-0.7900;1.5200;-0.4500;75;246;239;231;
-0.7870;1.5940;-0.4320;15;227;135;2;
-0.7510;1.5660;-0.4500;56;155;70;31;
-0.8080;1.5570;-0.4270;28;244;133;0;
-0.7840;1.6020;-0.4200;19;210;122;0;
-0.8270;1.5370;-0.4480;75;246;246;244;
-0.7720;1.5830;-0.3870;20;247;227;0;
-0.7830;1.5780;-0.3840;30;251;248;31;
-0.7970;1.5430;-0.4050;27;241;173;0;
-0.7800;1.6130;-0.4490;52;232;213;171;
-0.7500;1.5510;-0.4330;14;239;127;25;
-0.8070;1.5720;-0.4120;40;247;123;0;
-0.8240;1.5890;-0.4490;36;249;248;243;
-0.7600;1.5270;-0.4500;49;241;243;238;
-0.7540;1.5960;-0.4000;45;221;108;4;
-0.8050;1.5630;-0.4050;64;244;160;0;
-0.7410;1.5590;-0.4120;15;241;121;0;
-0.7760;1.6000;-0.4250;37;231;134;1;
-0.8000;1.5340;-0.4500;73;246;245;241;
-0.8050;1.5850;-0.4490;74;250;247;242;
-0.7690;1.5750;-0.3820;21;248;201;7;
-0.7870;1.5460;-0.4440;29;243;142;10;
-0.7660;1.6200;-0.4490;53;237;235;196;
-0.8110;1.5480;-0.4510;77;245;249;250;
-0.7920;1.5740;-0.4440;35;158;60;0;
-0.7650;1.5860;-0.3880;32;238;176;3;
-0.7280;1.5320;-0.4510;53;242;243;245;
-0.7590;1.5990;-0.4110;48;233;107;0;
-0.7810;1.5610;-0.3830;26;245;247;50;
-0.7340;1.5620;-0.4500;50;242;243;235;
-0.7990;1.5970;-0.4500;72;248;248;248;
-0.7280;1.5290;-0.4510;69;243;219;155;
-0.8250;1.5880;-0.4500;75;249;249;251;
-0.7400;1.5730;-0.4200;31;238;115;0;
-0.7480;1.5490;-0.4030;32;253;149;0;
-0.8340;1.6160;-0.4490;52;220;191;175;
-0.7490;1.5450;-0.4100;27;250;139;0;
-0.7380;1.5770;-0.4100;36;243;121;0;
-0.7470;1.5840;-0.4260;22;222;105;0;
-0.7790;1.5360;-0.4320;23;241;132;1;
-0.7490;1.6010;-0.4490;52;244;237;219;
-0.8100;1.5580;-0.4500;77;245;249;252;
-0.8060;1.5650;-0.4130;28;238;107;0;
-0.7930;1.5950;-0.4130;24;245;147;0;
-0.7720;1.5230;-0.4490;50;240;232;221;
-0.7680;1.5900;-0.3910;11;251;199;124;
-0.7880;1.5700;-0.3860;15;135;87;87;
-0.7510;1.5520;-0.3960;13;250;168;7;
-0.7830;1.6100;-0.4500;73;244;246;224;
-0.8010;1.5420;-0.4260;17;248;159;5;
-0.7520;1.5790;-0.3930;34;244;172;0;
-0.7580;1.5810;-0.3870;20;241;198;104;
-0.7910;1.5390;-0.4030;19;242;177;1;
-0.7460;1.6040;-0.4510;71;248;247;243;
-0.7260;1.5550;-0.4490;57;242;241;246;
-0.7630;1.5680;-0.4470;54;185;79;3;
-0.7590;1.5920;-0.3940;48;245;154;3;
-0.7910;1.5170;-0.4490;38;247;244;229;
-0.7840;1.5920;-0.4490;57;150;76;15;
-0.7420;1.5680;-0.4030;23;248;145;4;
-0.7290;1.5550;-0.4500;51;243;243;243;
-0.7760;1.6040;-0.4090;43;237;122;0;
-0.7940;1.5390;-0.4090;56;243;144;0;
-0.7590;1.5810;-0.3910;35;246;176;3;
-0.7760;1.5790;-0.3810;28;249;211;22;
-0.7530;1.5420;-0.4140;22;247;135;0;
-0.8110;1.6100;-0.4490;48;240;240;242;
-0.8270;1.5520;-0.4500;78;245;249;250;
-0.8060;1.5700;-0.4280;18;229;119;8;
-0.8010;1.5900;-0.4250;17;250;156;0;
-0.8140;1.5230;-0.4500;48;243;247;250;
-0.8290;1.5950;-0.4500;73;249;249;249;
-0.7970;1.5650;-0.4430;29;218;106;4;
-0.8050;1.5580;-0.4320;24;244;142;0;
-0.7740;1.6010;-0.4480;55;241;185;150;
-0.7580;1.5360;-0.4210;14;246;132;0;
-0.7910;1.5840;-0.3940;34;243;193;0;
-0.7780;1.5770;-0.3820;31;243;216;25;
-0.7700;1.5450;-0.3900;13;254;230;16;
-0.8330;1.6160;-0.4500;75;167;139;102;
-0.7750;1.5490;-0.3840;13;238;228;6;
-0.7420;1.5730;-0.4170;23;223;106;0;
-0.8000;1.5880;-0.4200;25;246;141;0;
-0.7740;1.5290;-0.4500;44;223;182;130;
-0.8150;1.5970;-0.4490;47;239;239;239;
-0.8000;1.5620;-0.3980;57;244;177;0;
-0.8060;1.5610;-0.4320;24;246;144;0;
-0.7460;1.5990;-0.4500;54;239;235;208;
-0.7760;1.5320;-0.4110;30;243;144;0;
-0.8290;1.5860;-0.4510;75;249;249;251;
-0.8260;1.5740;-0.4490;78;249;249;251;
-0.7510;1.5480;-0.3970;39;243;188;0;
-0.7550;1.6200;-0.4500;71;248;248;248;
-0.7510;1.5460;-0.4120;41;244;138;0;
-0.7420;1.5750;-0.4160;33;238;113;0;
-0.7690;1.5850;-0.4420;45;198;88;0;
-0.7830;1.5340;-0.4170;27;244;134;0;
-0.7440;1.6000;-0.4500;54;241;240;222;
-0.8280;1.5590;-0.4500;79;244;248;249;
-0.7910;1.5630;-0.4510;80;125;49;0;
-0.7830;1.5960;-0.3990;19;245;156;0;
-0.7530;1.5270;-0.4490;48;240;243;248;
-0.7810;1.5890;-0.4500;60;122;55;2;
-0.7790;1.5720;-0.3810;25;243;224;46;
-0.8340;1.5510;-0.4500;77;245;249;250;
-0.8030;1.6130;-0.4480;72;248;248;248;
-0.7480;1.5430;-0.4200;36;240;120;0;
-0.8030;1.5780;-0.4500;80;240;193;173;
-0.7840;1.5830;-0.4500;77;145;71;0;
-0.7960;1.5370;-0.4190;15;244;145;0;
-0.7760;1.6020;-0.4130;29;219;119;0;
-0.8210;1.5570;-0.4490;39;242;241;223;
-0.7440;1.5660;-0.3960;20;251;140;0;
-0.7830;1.5940;-0.3990;26;239;124;0;
-0.8010;1.5200;-0.4500;49;243;244;248;
-0.7760;1.5910;-0.3930;33;245;139;1;
-0.7760;1.5690;-0.3820;13;241;196;32;
-0.8080;1.5530;-0.4230;30;247;130;0;
-0.8350;1.6070;-0.4500;77;248;248;248;
-0.7970;1.5400;-0.4100;24;242;165;1;
-0.7450;1.5800;-0.4280;17;224;118;0;
-0.7830;1.5800;-0.3870;29;247;240;14;
-0.7860;1.5400;-0.4490;75;243;204;165;
-0.7750;1.6070;-0.4500;74;248;248;248;
-0.7930;1.5540;-0.4490;82;156;74;0;
-0.8040;1.5690;-0.4290;27;245;133;0;
-0.8280;1.5910;-0.4490;73;249;249;251;
-0.7920;1.5200;-0.4520;75;245;241;232;
-0.8280;1.5940;-0.4490;74;249;249;249;
-0.7360;1.5660;-0.4490;54;248;245;238;
-0.8040;1.5560;-0.4130;58;246;144;0;
-0.7730;1.6030;-0.4260;17;188;96;31;
-0.7890;1.5370;-0.4040;17;242;170;0;
-0.7490;1.5830;-0.4300;20;227;116;0;
-0.8010;1.5780;-0.4070;47;240;115;0;
-0.8000;1.5430;-0.4310;17;249;154;0;
-0.7880;1.6130;-0.4490;55;249;230;200;
-0.7600;1.5510;-0.3900;26;251;181;0;
-0.7470;1.5710;-0.3910;17;84;14;0;
-0.7790;1.5890;-0.3910;20;246;193;1;
-0.8350;1.5260;-0.4490;76;246;247;242;
-0.7850;1.5960;-0.3970;52;246;139;1;
-0.7540;1.5640;-0.3900;21;247;200;0;
-0.8000;1.5590;-0.3980;34;247;166;0;
-0.7700;1.6000;-0.4030;35;239;124;0;
-0.7350;1.5340;-0.4500;43;244;250;238;
-0.7860;1.5850;-0.4420;32;195;114;6;
-0.7450;1.5750;-0.4280;25;243;132;0;
-0.7560;1.5460;-0.3950;27;253;173;2;
-0.8290;1.6190;-0.4480;49;232;239;245;
-0.8360;1.5480;-0.4480;44;235;240;246;
-0.7500;1.5740;-0.3920;30;244;168;0;
-0.7830;1.5860;-0.3910;27;246;198;0;
-0.7970;1.5320;-0.4490;51;242;210;189;
-0.7770;1.5980;-0.4490;53;245;251;225;
-0.8050;1.5610;-0.4060;25;243;126;0;
-0.8080;1.5620;-0.4290;22;236;116;0;
-0.7570;1.5970;-0.4260;24;224;113;0;
-0.7580;1.5300;-0.4510;51;242;239;234;
-0.7480;1.5870;-0.4270;21;246;122;0;
-0.8190;1.5730;-0.4500;75;248;248;250;
-0.8030;1.5490;-0.4120;43;247;137;0;
-0.8190;1.6170;-0.4500;74;245;249;248;
-0.7570;1.5450;-0.3970;43;247;200;0;
-0.8010;1.5760;-0.4000;48;250;170;0;
-0.7530;1.5840;-0.3950;36;244;156;0;
-0.8120;1.5350;-0.4510;75;245;247;244;
-0.8330;1.6010;-0.4480;52;244;246;243;
-0.7780;1.5580;-0.3840;24;250;227;1;
-0.7960;1.5650;-0.4440;29;205;97;7;
-0.7530;1.5950;-0.4090;23;228;119;0;
-0.8170;1.5240;-0.4500;73;244;243;238;
-0.7810;1.5900;-0.4490;78;162;83;6;
-0.7770;1.5700;-0.3830;28;244;249;68;
-0.8060;1.5520;-0.4070;36;247;148;2;
-0.8180;1.6110;-0.4490;48;240;240;242;
-0.7640;1.5420;-0.3970;40;252;201;0;
-0.8040;1.5790;-0.4230;30;246;136;0;
-0.7960;1.5820;-0.4030;41;246;170;0;
-0.7960;1.5380;-0.4140;18;234;142;0;
-0.8030;1.6040;-0.4450;23;254;248;212;
-0.8070;1.5550;-0.4150;22;234;118;0;
-0.7870;1.5670;-0.3890;40;243;246;69;
-0.7560;1.5930;-0.4280;24;224;110;0;
-0.7930;1.5170;-0.4500;75;245;241;232;
-0.7480;1.5920;-0.4500;55;233;173;147;
-0.7930;1.5680;-0.4480;81;109;40;0;
-0.7960;1.5550;-0.3990;47;238;182;0;
-0.7390;1.6050;-0.4510;69;247;247;245;
-0.7650;1.5390;-0.4490;41;227;173;127;
-0.7700;1.5810;-0.4490;62;72;12;4;
-0.7880;1.5790;-0.3890;14;163;82;29;
-0.7500;1.5410;-0.4490;54;232;189;155;
-0.8100;1.6100;-0.4480;54;243;242;237;
-0.7920;1.5520;-0.3910;35;244;227;17;
-0.7650;1.5700;-0.4500;58;118;43;4;
-0.8280;1.5900;-0.4490;47;237;238;242;
-0.7970;1.5230;-0.4490;73;246;241;235;
-0.7600;1.5950;-0.4030;32;195;90;7;
-0.8110;1.5650;-0.4480;38;247;215;142;
-0.7940;1.5580;-0.3950;42;249;209;0;
-0.7750;1.6010;-0.4280;19;223;132;0;
-0.7860;1.5360;-0.4490;50;238;171;142;
-0.8030;1.5840;-0.4210;28;249;139;0;
-0.8250;1.5770;-0.4490;77;249;249;249;
-0.8230;1.5440;-0.4480;74;244;248;249;
-0.8000;1.6160;-0.4470;49;240;240;242;
-0.7510;1.5490;-0.4300;27;237;137;0;
-0.7470;1.5730;-0.4500;57;218;154;127;
-0.7960;1.5880;-0.4510;74;244;217;190;
-0.7320;1.5290;-0.4510;71;246;232;193;
-0.7750;1.5970;-0.4330;20;218;124;0;
-0.7410;1.5620;-0.4030;18;243;130;0;
-0.8190;1.5600;-0.4490;77;244;248;249;
-0.7830;1.5990;-0.4500;51;243;246;229;
-0.7860;1.5320;-0.4190;23;241;133;0;
-0.7960;1.5860;-0.4010;56;242;123;0;
-0.7410;1.5740;-0.4190;22;220;105;0;
-0.7990;1.5470;-0.4050;34;247;173;0;
-0.8220;1.6200;-0.4490;39;247;249;244;
-0.7790;1.5460;-0.4500;45;146;46;0;
-0.7530;1.5750;-0.4500;58;118;42;8;
-0.7820;1.5850;-0.3920;28;248;205;4;
-0.8220;1.5340;-0.4510;75;245;247;242;
-0.7840;1.6000;-0.4220;21;215;125;2;
-0.7830;1.5600;-0.3830;27;247;248;58;
-0.8190;1.5630;-0.4500;75;247;248;250;
-0.7660;1.5960;-0.4000;13;237;174;60;
-0.7800;1.5270;-0.4490;51;239;185;157;
-0.7440;1.5880;-0.4170;26;245;118;1;
-0.8200;1.5720;-0.4500;78;248;248;250;
-0.8050;1.5500;-0.4180;32;245;140;0;
-0.8140;1.6140;-0.4500;48;240;240;242;
-0.7940;1.5430;-0.4080;54;250;152;3;
-0.8070;1.5780;-0.4490;47;240;207;166;
-0.7850;1.5830;-0.3900;30;244;213;0;
-0.7880;1.5370;-0.4050;12;250;212;115;
-0.7750;1.6020;-0.4280;16;242;186;129;
-0.7590;1.5570;-0.3900;30;249;185;0;
-0.7900;1.5660;-0.3880;40;245;246;66;
-0.7860;1.5940;-0.4310;37;235;131;0;
-0.7660;1.5210;-0.4510;75;244;235;228;
-0.7600;1.5910;-0.4360;23;225;144;63;
-0.7450;1.5690;-0.4500;51;218;153;121;
-0.7980;1.5530;-0.4000;46;244;180;0;
-0.8230;1.6080;-0.4480;53;245;247;244;
-0.8370;1.5410;-0.4480;42;236;242;242;
-0.7450;1.5800;-0.4040;33;238;127;0;
-0.8030;1.5810;-0.4250;27;245;133;0;
-0.7570;1.5400;-0.4510;47;223;176;120;
-0.8330;1.6070;-0.4490;76;248;248;248;
-0.8030;1.5540;-0.4330;24;244;148;1;
-0.8050;1.5690;-0.4500;81;251;225;210;
-0.7960;1.5910;-0.4160;57;231;106;0;
-0.7250;1.5200;-0.4500;54;239;239;241;
-0.7940;1.5930;-0.4120;24;246;148;0;
-0.7400;1.5660;-0.4090;19;242;122;0;
-0.8040;1.5560;-0.4050;61;248;161;2;
-0.7660;1.6030;-0.4250;20;239;118;1;
-0.7930;1.5370;-0.4230;16;238;139;0;
-0.8180;1.5820;-0.4490;73;249;249;249;
-0.7470;1.5780;-0.4310;24;242;129;0;
-0.7980;1.5430;-0.4100;18;242;146;10;
-0.7860;1.6130;-0.4490;52;242;239;204;
-0.7750;1.5510;-0.3840;13;244;241;6;
-0.8070;1.5710;-0.4230;31;247;142;1;
-0.7570;1.5890;-0.4500;58;161;88;55;
-0.8140;1.5260;-0.4490;75;243;242;237;
-0.7510;1.5960;-0.4500;55;224;182;160;
-0.8080;1.5640;-0.4140;28;238;110;1;
-0.7430;1.5590;-0.4070;47;250;126;0;
-0.7820;1.6000;-0.4090;60;237;125;0;
-0.7600;1.5340;-0.4490;49;241;204;177;
-0.7480;1.5850;-0.4110;29;246;128;2;
-0.8060;1.5760;-0.4260;27;245;147;0;
-0.7930;1.5460;-0.4490;53;238;155;105;
-0.8160;1.6190;-0.4480;73;247;249;248;
-0.7860;1.5480;-0.3910;26;241;226;13;
-0.7600;1.5740;-0.3860;28;248;220;23;
-0.7450;1.5870;-0.4140;33;230;107;1;
-0.7700;1.5320;-0.4240;20;244;138;2;
-0.7560;1.5980;-0.4090;64;235;109;0;
-0.8050;1.5610;-0.4100;63;245;150;0;
-0.7420;1.5620;-0.4210;13;230;112;4;
-0.7460;1.5980;-0.4500;54;241;234;206;
-0.7950;1.5300;-0.4500;72;244;245;237;
-0.7270;1.5870;-0.4500;53;251;247;248;
-0.7580;1.5730;-0.4510;62;96;30;6;
-0.7480;1.5490;-0.4020;32;251;150;0;
-0.7660;1.6170;-0.4510;74;248;249;244;
-0.7900;1.5450;-0.3960;42;245;192;0;
-0.7390;1.5760;-0.4050;37;244;132;0;
-0.8270;1.5840;-0.4480;48;239;240;244;
-0.7840;1.5350;-0.4490;50;239;172;143;
-0.7810;1.6010;-0.4500;76;246;248;245;
-0.7400;1.5580;-0.4200;20;243;140;1;
-0.8070;1.5650;-0.4200;35;245;133;0;
-0.7740;1.5950;-0.4340;21;222;129;0;
-0.7940;1.5240;-0.4480;52;245;236;231;
-0.7740;1.5900;-0.3880;28;241;153;1;
-0.7840;1.5700;-0.3850;13;251;200;157;
-0.7910;1.5520;-0.3930;34;243;217;6;
-0.7530;1.6110;-0.4500;52;244;239;220;
-0.7750;1.5420;-0.3920;12;237;188;86;
-0.7530;1.5790;-0.4490;55;201;82;24;
-0.8010;1.5820;-0.4050;37;242;141;0;
-0.7320;1.5380;-0.4500;57;239;240;244;
-0.7760;1.6040;-0.4490;76;247;249;246;
-0.7890;1.5550;-0.4500;82;138;58;0;
-0.7800;1.5670;-0.3830;29;244;246;83;
-0.7950;1.5930;-0.4250;45;234;121;0;
-0.7700;1.5180;-0.4510;75;245;238;228;
-0.7280;1.5920;-0.4500;51;248;250;249;
-0.7540;1.5680;-0.4400;18;226;138;5;
-0.8070;1.5550;-0.4230;23;230;118;6;
-0.7960;1.6050;-0.4500;74;248;248;248;
-0.7950;1.5390;-0.4030;20;240;170;0;
-0.7480;1.5810;-0.3990;36;247;152;0;
-0.7730;1.5790;-0.4490;63;91;20;0;
